ply
format ascii 1.0
element vertex 241
property float x
property float y
property float z
end_header
-0.07692307978868484 0.12820513546466827 0.07692307978868484
-0.07692307978868484 0.12820513546466827 0.12820513546466827
-0.07692307978868484 0.1794871836900711 0.025641025975346565
-0.07692307978868484 0.1794871836900711 0.07692307978868484
-0.07692307978868484 0.1794871836900711 0.12820513546466827
-0.07692307978868484 0.23076923191547394 -0.025641025975346565
-0.07692307978868484 0.23076923191547394 0.025641025975346565
-0.07692307978868484 0.23076923191547394 0.07692307978868484
-0.07692307978868484 0.23076923191547394 0.12820513546466827
-0.025641025975346565 0.025641025975346565 -0.025641025975346565
-0.025641025975346565 0.025641025975346565 0.025641025975346565
-0.025641025975346565 0.025641025975346565 0.07692307978868484
-0.025641025975346565 0.07692307978868484 -0.07692307978868484
-0.025641025975346565 0.07692307978868484 -0.025641025975346565
-0.025641025975346565 0.07692307978868484 0.025641025975346565
-0.025641025975346565 0.07692307978868484 0.07692307978868484
-0.025641025975346565 0.07692307978868484 0.12820513546466827
-0.025641025975346565 0.12820513546466827 -0.12820513546466827
-0.025641025975346565 0.12820513546466827 -0.07692307978868484
-0.025641025975346565 0.12820513546466827 -0.025641025975346565
-0.025641025975346565 0.12820513546466827 0.025641025975346565
-0.025641025975346565 0.12820513546466827 0.07692307978868484
-0.025641025975346565 0.12820513546466827 0.12820513546466827
-0.025641025975346565 0.1794871836900711 -0.12820513546466827
-0.025641025975346565 0.1794871836900711 -0.07692307978868484
-0.025641025975346565 0.1794871836900711 -0.025641025975346565
-0.025641025975346565 0.1794871836900711 0.025641025975346565
-0.025641025975346565 0.1794871836900711 0.07692307978868484
-0.025641025975346565 0.1794871836900711 0.12820513546466827
-0.025641025975346565 0.1794871836900711 0.1794871836900711
-0.025641025975346565 0.23076923191547394 -0.12820513546466827
-0.025641025975346565 0.23076923191547394 -0.07692307978868484
-0.025641025975346565 0.23076923191547394 -0.025641025975346565
-0.025641025975346565 0.23076923191547394 0.025641025975346565
-0.025641025975346565 0.23076923191547394 0.07692307978868484
-0.025641025975346565 0.23076923191547394 0.12820513546466827
-0.025641025975346565 0.23076923191547394 0.1794871836900711
0.025641025975346565 0.025641025975346565 -0.07692307978868484
0.025641025975346565 0.025641025975346565 -0.025641025975346565
0.025641025975346565 0.025641025975346565 0.025641025975346565
0.025641025975346565 0.025641025975346565 0.07692307978868484
0.025641025975346565 0.07692307978868484 -0.12820513546466827
0.025641025975346565 0.07692307978868484 -0.07692307978868484
0.025641025975346565 0.07692307978868484 -0.025641025975346565
0.025641025975346565 0.07692307978868484 0.025641025975346565
0.025641025975346565 0.07692307978868484 0.07692307978868484
0.025641025975346565 0.07692307978868484 0.12820513546466827
0.025641025975346565 0.12820513546466827 -0.12820513546466827
0.025641025975346565 0.12820513546466827 -0.07692307978868484
0.025641025975346565 0.12820513546466827 -0.025641025975346565
0.025641025975346565 0.12820513546466827 0.025641025975346565
0.025641025975346565 0.12820513546466827 0.07692307978868484
0.025641025975346565 0.12820513546466827 0.12820513546466827
0.025641025975346565 0.1794871836900711 -0.12820513546466827
0.025641025975346565 0.1794871836900711 -0.07692307978868484
0.025641025975346565 0.1794871836900711 -0.025641025975346565
0.025641025975346565 0.1794871836900711 0.025641025975346565
0.025641025975346565 0.1794871836900711 0.07692307978868484
0.025641025975346565 0.1794871836900711 0.12820513546466827
0.025641025975346565 0.1794871836900711 0.1794871836900711
0.025641025975346565 0.23076923191547394 -0.12820513546466827
0.025641025975346565 0.23076923191547394 -0.07692307978868484
0.025641025975346565 0.23076923191547394 -0.025641025975346565
0.025641025975346565 0.23076923191547394 0.025641025975346565
0.025641025975346565 0.23076923191547394 0.07692307978868484
0.025641025975346565 0.23076923191547394 0.12820513546466827
0.025641025975346565 0.23076923191547394 0.1794871836900711
0.07692307978868484 0.025641025975346565 -0.07692307978868484
0.07692307978868484 0.025641025975346565 -0.025641025975346565
0.07692307978868484 0.025641025975346565 0.025641025975346565
0.07692307978868484 0.025641025975346565 0.07692307978868484
0.07692307978868484 0.07692307978868484 -0.12820513546466827
0.07692307978868484 0.07692307978868484 -0.07692307978868484
0.07692307978868484 0.07692307978868484 -0.025641025975346565
0.07692307978868484 0.07692307978868484 0.025641025975346565
0.07692307978868484 0.07692307978868484 0.07692307978868484
0.07692307978868484 0.07692307978868484 0.12820513546466827
0.07692307978868484 0.12820513546466827 -0.12820513546466827
0.07692307978868484 0.12820513546466827 -0.07692307978868484
0.07692307978868484 0.12820513546466827 -0.025641025975346565
0.07692307978868484 0.12820513546466827 0.025641025975346565
0.07692307978868484 0.12820513546466827 0.07692307978868484
0.07692307978868484 0.12820513546466827 0.12820513546466827
0.07692307978868484 0.1794871836900711 -0.12820513546466827
0.07692307978868484 0.1794871836900711 -0.07692307978868484
0.07692307978868484 0.1794871836900711 -0.025641025975346565
0.07692307978868484 0.1794871836900711 0.025641025975346565
0.07692307978868484 0.1794871836900711 0.07692307978868484
0.07692307978868484 0.1794871836900711 0.12820513546466827
0.07692307978868484 0.1794871836900711 0.1794871836900711
0.07692307978868484 0.23076923191547394 -0.12820513546466827
0.07692307978868484 0.23076923191547394 -0.07692307978868484
0.07692307978868484 0.23076923191547394 -0.025641025975346565
0.07692307978868484 0.23076923191547394 0.025641025975346565
0.07692307978868484 0.23076923191547394 0.07692307978868484
0.07692307978868484 0.23076923191547394 0.12820513546466827
0.07692307978868484 0.23076923191547394 0.1794871836900711
0.12820513546466827 0.025641025975346565 -0.07692307978868484
0.12820513546466827 0.025641025975346565 -0.025641025975346565
0.12820513546466827 0.025641025975346565 0.025641025975346565
0.12820513546466827 0.025641025975346565 0.07692307978868484
0.12820513546466827 0.07692307978868484 -0.12820513546466827
0.12820513546466827 0.07692307978868484 -0.07692307978868484
0.12820513546466827 0.07692307978868484 -0.025641025975346565
0.12820513546466827 0.07692307978868484 0.025641025975346565
0.12820513546466827 0.07692307978868484 0.07692307978868484
0.12820513546466827 0.07692307978868484 0.12820513546466827
0.12820513546466827 0.12820513546466827 -0.12820513546466827
0.12820513546466827 0.12820513546466827 -0.07692307978868484
0.12820513546466827 0.12820513546466827 -0.025641025975346565
0.12820513546466827 0.12820513546466827 0.025641025975346565
0.12820513546466827 0.12820513546466827 0.07692307978868484
0.12820513546466827 0.12820513546466827 0.12820513546466827
0.12820513546466827 0.1794871836900711 -0.12820513546466827
0.12820513546466827 0.1794871836900711 -0.07692307978868484
0.12820513546466827 0.1794871836900711 -0.025641025975346565
0.12820513546466827 0.1794871836900711 0.025641025975346565
0.12820513546466827 0.1794871836900711 0.07692307978868484
0.12820513546466827 0.1794871836900711 0.12820513546466827
0.12820513546466827 0.1794871836900711 0.1794871836900711
0.12820513546466827 0.23076923191547394 -0.12820513546466827
0.12820513546466827 0.23076923191547394 -0.07692307978868484
0.12820513546466827 0.23076923191547394 -0.025641025975346565
0.12820513546466827 0.23076923191547394 0.025641025975346565
0.12820513546466827 0.23076923191547394 0.07692307978868484
0.12820513546466827 0.23076923191547394 0.12820513546466827
0.12820513546466827 0.23076923191547394 0.1794871836900711
0.1794871836900711 0.025641025975346565 -0.07692307978868484
0.1794871836900711 0.025641025975346565 -0.025641025975346565
0.1794871836900711 0.025641025975346565 0.025641025975346565
0.1794871836900711 0.025641025975346565 0.07692307978868484
0.1794871836900711 0.07692307978868484 -0.12820513546466827
0.1794871836900711 0.07692307978868484 -0.07692307978868484
0.1794871836900711 0.07692307978868484 -0.025641025975346565
0.1794871836900711 0.07692307978868484 0.025641025975346565
0.1794871836900711 0.07692307978868484 0.07692307978868484
0.1794871836900711 0.07692307978868484 0.12820513546466827
0.1794871836900711 0.12820513546466827 -0.12820513546466827
0.1794871836900711 0.12820513546466827 -0.07692307978868484
0.1794871836900711 0.12820513546466827 -0.025641025975346565
0.1794871836900711 0.12820513546466827 0.025641025975346565
0.1794871836900711 0.12820513546466827 0.07692307978868484
0.1794871836900711 0.12820513546466827 0.12820513546466827
0.1794871836900711 0.1794871836900711 -0.12820513546466827
0.1794871836900711 0.1794871836900711 -0.07692307978868484
0.1794871836900711 0.1794871836900711 -0.025641025975346565
0.1794871836900711 0.1794871836900711 0.025641025975346565
0.1794871836900711 0.1794871836900711 0.07692307978868484
0.1794871836900711 0.1794871836900711 0.12820513546466827
0.1794871836900711 0.1794871836900711 0.1794871836900711
0.1794871836900711 0.23076923191547394 -0.12820513546466827
0.1794871836900711 0.23076923191547394 -0.07692307978868484
0.1794871836900711 0.23076923191547394 -0.025641025975346565
0.1794871836900711 0.23076923191547394 0.025641025975346565
0.1794871836900711 0.23076923191547394 0.07692307978868484
0.1794871836900711 0.23076923191547394 0.12820513546466827
0.23076923191547394 0.025641025975346565 -0.07692307978868484
0.23076923191547394 0.025641025975346565 -0.025641025975346565
0.23076923191547394 0.025641025975346565 0.025641025975346565
0.23076923191547394 0.025641025975346565 0.07692307978868484
0.23076923191547394 0.07692307978868484 -0.07692307978868484
0.23076923191547394 0.07692307978868484 -0.025641025975346565
0.23076923191547394 0.07692307978868484 0.025641025975346565
0.23076923191547394 0.07692307978868484 0.07692307978868484
0.23076923191547394 0.07692307978868484 0.12820513546466827
0.23076923191547394 0.12820513546466827 -0.12820513546466827
0.23076923191547394 0.12820513546466827 -0.07692307978868484
0.23076923191547394 0.12820513546466827 -0.025641025975346565
0.23076923191547394 0.12820513546466827 0.025641025975346565
0.23076923191547394 0.12820513546466827 0.07692307978868484
0.23076923191547394 0.12820513546466827 0.12820513546466827
0.23076923191547394 0.12820513546466827 0.1794871836900711
0.23076923191547394 0.1794871836900711 -0.12820513546466827
0.23076923191547394 0.1794871836900711 -0.07692307978868484
0.23076923191547394 0.1794871836900711 -0.025641025975346565
0.23076923191547394 0.1794871836900711 0.025641025975346565
0.23076923191547394 0.1794871836900711 0.07692307978868484
0.23076923191547394 0.1794871836900711 0.12820513546466827
0.23076923191547394 0.1794871836900711 0.1794871836900711
0.23076923191547394 0.23076923191547394 -0.12820513546466827
0.23076923191547394 0.23076923191547394 -0.07692307978868484
0.23076923191547394 0.23076923191547394 -0.025641025975346565
0.23076923191547394 0.23076923191547394 0.025641025975346565
0.23076923191547394 0.23076923191547394 0.07692307978868484
0.28205129504203796 0.025641025975346565 -0.07692307978868484
0.28205129504203796 0.025641025975346565 -0.025641025975346565
0.28205129504203796 0.025641025975346565 0.025641025975346565
0.28205129504203796 0.07692307978868484 -0.07692307978868484
0.28205129504203796 0.07692307978868484 -0.025641025975346565
0.28205129504203796 0.07692307978868484 0.025641025975346565
0.28205129504203796 0.07692307978868484 0.07692307978868484
0.28205129504203796 0.07692307978868484 0.12820513546466827
0.28205129504203796 0.12820513546466827 -0.12820513546466827
0.28205129504203796 0.12820513546466827 -0.07692307978868484
0.28205129504203796 0.12820513546466827 -0.025641025975346565
0.28205129504203796 0.12820513546466827 0.025641025975346565
0.28205129504203796 0.12820513546466827 0.07692307978868484
0.28205129504203796 0.12820513546466827 0.12820513546466827
0.28205129504203796 0.12820513546466827 0.1794871836900711
0.28205129504203796 0.1794871836900711 -0.12820513546466827
0.28205129504203796 0.1794871836900711 -0.07692307978868484
0.28205129504203796 0.1794871836900711 -0.025641025975346565
0.28205129504203796 0.1794871836900711 0.025641025975346565
0.28205129504203796 0.1794871836900711 0.07692307978868484
0.28205129504203796 0.1794871836900711 0.12820513546466827
0.28205129504203796 0.1794871836900711 0.1794871836900711
0.28205129504203796 0.23076923191547394 -0.07692307978868484
0.28205129504203796 0.23076923191547394 -0.025641025975346565
0.28205129504203796 0.23076923191547394 0.025641025975346565
0.3333333432674408 0.025641025975346565 -0.07692307978868484
0.3333333432674408 0.025641025975346565 -0.025641025975346565
0.3333333432674408 0.07692307978868484 -0.07692307978868484
0.3333333432674408 0.07692307978868484 -0.025641025975346565
0.3333333432674408 0.07692307978868484 0.025641025975346565
0.3333333432674408 0.07692307978868484 0.07692307978868484
0.3333333432674408 0.12820513546466827 -0.12820513546466827
0.3333333432674408 0.12820513546466827 -0.07692307978868484
0.3333333432674408 0.12820513546466827 -0.025641025975346565
0.3333333432674408 0.12820513546466827 0.025641025975346565
0.3333333432674408 0.12820513546466827 0.07692307978868484
0.3333333432674408 0.12820513546466827 0.12820513546466827
0.3333333432674408 0.1794871836900711 -0.12820513546466827
0.3333333432674408 0.1794871836900711 -0.07692307978868484
0.3333333432674408 0.1794871836900711 -0.025641025975346565
0.3333333432674408 0.1794871836900711 0.025641025975346565
0.3333333432674408 0.1794871836900711 0.07692307978868484
0.3333333432674408 0.1794871836900711 0.12820513546466827
0.38461539149284363 0.07692307978868484 -0.07692307978868484
0.38461539149284363 0.07692307978868484 -0.025641025975346565
0.38461539149284363 0.07692307978868484 0.025641025975346565
0.38461539149284363 0.12820513546466827 -0.12820513546466827
0.38461539149284363 0.12820513546466827 -0.07692307978868484
0.38461539149284363 0.12820513546466827 -0.025641025975346565
0.38461539149284363 0.12820513546466827 0.025641025975346565
0.38461539149284363 0.12820513546466827 0.07692307978868484
0.38461539149284363 0.1794871836900711 -0.12820513546466827
0.38461539149284363 0.1794871836900711 -0.07692307978868484
0.38461539149284363 0.1794871836900711 -0.025641025975346565
0.38461539149284363 0.1794871836900711 0.025641025975346565
0.38461539149284363 0.1794871836900711 0.07692307978868484
0.43589743971824646 0.1794871836900711 -0.025641025975346565
